# .PCD v0.7 - Point Cloud Data file format
VERSION 0.7
FIELDS x y z
SIZE 4 4 4
TYPE F F F
COUNT 1 1 1
WIDTH 730
HEIGHT 1
VIEWPOINT 0 0 0 1 0 0 0
POINTS 730
DATA ascii
-0.11501333 0.39951998 0.90799999
-0.12279619 0.40470859 0.90799999
-0.11501334 0.40384379 0.90800017
-0.10671163 0.40505448 0.90799999
-0.13158222 0.38892445 0.917
-0.12438566 0.38638562 0.91676909
-0.11464643 0.38577098 0.91642851
-0.10536888 0.38742173 0.91688877
-0.098977774 0.38892445 0.917
-0.14280422 0.39794901 0.91677773
-0.13491102 0.3958936 0.91650003
-0.1248082 0.39510018 0.91473711
-0.11509973 0.39472413 0.91228944
-0.10523941 0.39487213 0.91326195
-0.097424656 0.39576119 0.91594738
-0.14428394 0.40534231 0.91507423
-0.13532984 0.40413368 0.91306269
-0.12681089 0.40339705 0.91080946
-0.11526667 0.40040001 0.91000003
-0.10392724 0.4032239 0.9109
-0.095507026 0.40523717 0.91481268
-0.14846666 0.41046667 0.917
-0.090826668 0.41046667 0.917
-0.12077485 0.35702744 0.92699993
-0.11477142 0.35726282 0.92699993
-0.10947429 0.35667425 0.92699999
-0.12382243 0.36540321 0.9257825
-0.11541732 0.36482152 0.92491895
-0.10548904 0.36498383 0.92613328
-0.13177736 0.37709272 0.92655551
-0.12504539 0.37496215 0.92342436
-0.11497208 0.37469146 0.92248666
-0.10478493 0.37460807 0.92365861
-0.097263493 0.37768087 0.92655551
-0.14220507 0.38900125 0.92549998
-0.13526019 0.38539296 0.9240303
-0.12626621 0.38253093 0.92150003
-0.11470258 0.38170394 0.92135715
-0.10439228 0.38242608 0.92034996
-0.095065415 0.38479087 0.92307299
-0.089857146 0.38938096 0.92500001
-0.15185143 0.39758 0.92699999
-0.14504735 0.39455363 0.9232223
-0.13715582 0.39182171 0.92080003
-0.093225934 0.3946704 0.92266673
-0.088938877 0.39517733 0.92545456
-0.076808572 0.3972857 0.92699999
-0.1543041 0.40490413 0.9246785
-0.14882857 0.40260497 0.92140007
-0.091481902 0.40304568 0.92066669
-0.085873507 0.40539464 0.92584848
-0.077691436 0.40611422 0.92699999
-0.15503223 0.41227952 0.92400002
-0.085232273 0.41259852 0.92547071
-0.077691436 0.41317707 0.92699993
-0.13142094 0.32801524 0.93999994
-0.12610067 0.32893604 0.94
-0.11544035 0.32774955 0.93962485
-0.10823809 0.32828951 0.93924999
-0.13274014 0.33532724 0.93905258
-0.12481053 0.33430785 0.93606681
-0.11500625 0.3343237 0.93611121
-0.10625713 0.33563697 0.93871427
-0.13317882 0.34512588 0.93824011
-0.12439276 0.34486419 0.93370581
-0.11472356 0.34425798 0.9319998
-0.10508434 0.34462184 0.93432492
-0.097566389 0.34767646 0.93742865
-0.13423626 0.35490966 0.93685192
-0.12526068 0.35486433 0.93135709
-0.11494579 0.35377872 0.93036371
-0.10518519 0.3554664 0.93169695
-0.095494956 0.35520104 0.93588561
-0.087280385 0.35676011 0.93899995
-0.14144762 0.3688381 0.94
-0.13546965 0.36521286 0.93576682
-0.12807779 0.36325368 0.93066674
-0.11514286 0.36137143 0.93000001
-0.10255184 0.36209902 0.93057144
-0.095186502 0.36480823 0.93388563
-0.086753488 0.36686611 0.93857878
-0.14167599 0.37581143 0.93755555
-0.13585088 0.37456223 0.93296289
-0.094205543 0.37453806 0.93217635
-0.08688762 0.37526974 0.9370001
-0.15129523 0.3858476 0.94
-0.14506964 0.38441882 0.93523341
-0.13861428 0.3821857 0.93000001
-0.091159999 0.38240445 0.93233329
-0.086567141 0.3849586 0.93712497
-0.15354426 0.3950088 0.93505269
-0.14857024 0.39210519 0.93412495
-0.084651962 0.39491576 0.93425
-0.079059996 0.39796999 0.93274999
-0.15588571 0.40034285 0.93000001
-0.083257139 0.40135512 0.92999995
-0.077057146 0.40122861 0.92999995
-0.13413981 0.30525866 0.94866681
-0.12482877 0.30507374 0.94832152
-0.11632784 0.30693215 0.9496249
-0.14188398 0.31599033 0.94945449
-0.13513143 0.31466022 0.94712895
-0.12500301 0.31465513 0.94588226
-0.11475361 0.31527039 0.94814301
-0.10779592 0.31614965 0.94999993
-0.14374475 0.32468265 0.94805002
-0.13538541 0.32390657 0.94293076
-0.12475309 0.32380089 0.94299984
-0.11465662 0.3228049 0.94390893
-0.10559323 0.32506934 0.94665617
-0.099471428 0.32644573 0.94950002
-0.14408135 0.33502549 0.94787997
-0.13701819 0.33357397 0.94200003
-0.10263893 0.33318925 0.94331259
-0.096617468 0.33565292 0.94852179
-0.14342034 0.34488696 0.94734782
-0.13815999 0.34540001 0.94199997
-0.10048 0.34181142 0.94199997
-0.094347313 0.34447393 0.94578117
-0.088480003 0.34669715 0.94800001
-0.14384991 0.35462776 0.94710523
-0.13995428 0.35616571 0.94199997
-0.091198094 0.35099617 0.94499999
-0.087755993 0.35156059 0.94410008
-0.14505436 0.36489302 0.94680959
-0.13995428 0.3606514 0.94199997
-0.084717706 0.36417598 0.94230002
-0.15019047 0.38 0.94999999
-0.14612824 0.37522975 0.94710523
-0.15335268 0.38427731 0.9453333
-0.14873572 0.38130283 0.9465
-0.082667142 0.38638854 0.94349998
-0.15747258 0.39403543 0.94590008
-0.081794277 0.3947356 0.9447273
-0.078947142 0.39654312 0.94737494
-0.077645712 0.40086856 0.94800001
-0.14303325 0.29715544 0.95800012
-0.13454857 0.29612026 0.95670843
-0.12508713 0.29575241 0.95611417
-0.11747973 0.29773304 0.95728576
-0.15145524 0.30747238 0.958
-0.14484748 0.30468521 0.95548272
-0.13700262 0.30149642 0.95424998
-0.12349905 0.30103284 0.95350003
-0.11466676 0.30384049 0.95404994
-0.10694239 0.30747983 0.95566672
-0.15191144 0.31568378 0.95800006
-0.14660698 0.31423712 0.95414269
-0.11254476 0.31131333 0.95300001
-0.1038673 0.3147743 0.95422202
-0.097091421 0.31862715 0.95725
-0.151948 0.32466114 0.95650005
-0.14876869 0.32427672 0.95414287
-0.10195881 0.32200381 0.95375001
-0.096316926 0.32548022 0.95611119
-0.15269478 0.33519325 0.95575005
-0.14884952 0.33218858 0.95300001
-0.092976831 0.33360887 0.95505553
-0.08941333 0.33466133 0.958
-0.15258619 0.34464273 0.95650005
-0.14884952 0.34489521 0.95299995
-0.090761907 0.34217238 0.95300001
-0.08751706 0.34572646 0.95569229
-0.15210815 0.35565796 0.95700002
-0.14890158 0.35500225 0.95333338
-0.087131418 0.35034096 0.95300001
-0.1518961 0.36533925 0.95554543
-0.14884952 0.36214 0.95300001
-0.15316081 0.37609601 0.95484203
-0.15655048 0.38267004 0.95566666
-0.14212 0.27796456 0.96899998
-0.13409865 0.27750918 0.96789461
-0.12586963 0.27662629 0.96790892
-0.11904857 0.27870286 0.96899998
-0.15227143 0.28723928 0.96899992
-0.14509004 0.28505442 0.96691662
-0.13504368 0.28532174 0.96360588
-0.12510338 0.28560281 0.96418166
-0.11633925 0.28589776 0.96722209
-0.1082819 0.28916189 0.96900004
-0.16057713 0.29900572 0.96899998
-0.15380773 0.29583773 0.96678245
-0.1458455 0.2939252 0.96244454
-0.13568404 0.29173213 0.96100003
-0.1242092 0.29145172 0.96133333
-0.11415527 0.29442886 0.96416116
-0.10671617 0.29577526 0.96783322
-0.097822852 0.29900572 0.96900004
-0.16057713 0.30085143 0.96899998
-0.15481983 0.30426189 0.96470833
-0.11224572 0.30169404 0.962125
-0.10547239 0.30486551 0.96585709
-0.09966857 0.30454287 0.96899998
-0.16119237 0.31869331 0.96900004
-0.15643106 0.31445739 0.96474993
-0.10168952 0.31149873 0.96483332
-0.096980833 0.31595415 0.96553326
-0.16235496 0.32578957 0.96794105
-0.15700524 0.32518715 0.96499997
-0.093764231 0.32449418 0.96311116
-0.089693338 0.32948571 0.96100003
-0.1626295 0.33446413 0.9671666
-0.15717439 0.33391556 0.96322221
-0.087750092 0.33852267 0.96379995
-0.16274963 0.34519035 0.96749985
-0.15751715 0.34528747 0.96270001
-0.08700794 0.34253523 0.96166664
-0.16140312 0.35531792 0.96790892
-0.15652429 0.35511842 0.96391672
-0.16228089 0.36545146 0.96899992
-0.15679969 0.36519256 0.96466666
-0.16094381 0.37686285 0.96750003
-0.15741462 0.37415513 0.96344441
-0.16008 0.38088 0.96600002
-0.15376119 0.26914024 0.97700012
-0.14452009 0.26586652 0.97637486
-0.13555959 0.26534304 0.97539264
-0.12644522 0.26823619 0.97625011
-0.1600419 0.27449048 0.977
-0.15446268 0.27500743 0.97554159
-0.14549197 0.27483007 0.97303551
-0.13573284 0.27250713 0.97200006
-0.12400662 0.27288023 0.9734118
-0.11703081 0.27712747 0.97527277
-0.16066222 0.28503588 0.97700006
-0.15604807 0.28464514 0.97355002
-0.11333222 0.28325522 0.97408336
-0.10589061 0.28828245 0.97285712
-0.16315283 0.29506591 0.97464705
-0.1584762 0.29314014 0.97228575
-0.10291065 0.29591349 0.97350001
-0.0977 0.29961333 0.977
-0.16462234 0.30555427 0.97419047
-0.10256914 0.30400458 0.972
-0.096979208 0.30612156 0.97600007
-0.16478312 0.31497061 0.97461903
-0.095378451 0.31302381 0.97350001
-0.17120762 0.32101429 0.977
-0.16712712 0.32277974 0.97390914
-0.16662857 0.34992 0.972
-0.16631018 0.35562396 0.9728334
-0.16609372 0.36295772 0.97320002
-0.16313761 0.37400785 0.97325009
-0.16184381 0.24841142 0.98799998
-0.15458502 0.24814259 0.98799998
-0.14522029 0.24809778 0.98799998
-0.13832 0.24841142 0.98799998
-0.16345975 0.25541925 0.98781246
-0.15538998 0.25425211 0.98612154
-0.14493611 0.25525349 0.9842822
-0.13555336 0.25601745 0.98558652
-0.12696072 0.25753829 0.98692298
-0.16398403 0.26527944 0.985762
-0.15539455 0.26403937 0.98159242
-0.14777778 0.2625778 0.98000002
-0.13259049 0.26198015 0.98042858
-0.12433857 0.26412112 0.98344821
-0.11772131 0.26707545 0.9858461
-0.17125332 0.2785219 0.98799998
-0.16533092 0.27460271 0.98330772
-0.11407104 0.27405834 0.98300004
-0.10787046 0.27601445 0.98633337
-0.1719541 0.28577334 0.98769999
-0.16541697 0.28441447 0.9817726
-0.11071483 0.28305578 0.98042858
-0.10576447 0.28516585 0.98365003
-0.17271927 0.29488876 0.98561531
-0.16805142 0.29427525 0.98029995
-0.10197608 0.29283872 0.98133332
-0.098466672 0.29726666 0.98000002
-0.17240191 0.30336571 0.98228568
-0.16955556 0.30426666 0.98000002
-0.096133336 0.30986667 0.98000002
-0.17182095 0.31469142 0.98049998
-0.16986667 0.31593335 0.98000002
-0.17173333 0.32573336 0.98000002
-0.15508889 0.22915173 0.99699986
-0.14812571 0.22978476 0.99699998
-0.16236612 0.23637755 0.99633336
-0.15448527 0.23536523 0.99574178
-0.14567664 0.237893 0.99649984
-0.13736445 0.23864698 0.99699998
-0.16392137 0.24492969 0.9933182
-0.15529813 0.24378856 0.99217379
-0.14485797 0.24359678 0.99231982
-0.13485397 0.24506427 0.99249977
-0.12697735 0.24785778 0.99333328
-0.17218596 0.25508744 0.99536365
-0.16815066 0.25448912 0.99190009
-0.13321197 0.25159267 0.99100006
-0.12418286 0.25441724 0.99234992
-0.11844952 0.25771543 0.99339998
-0.18040952 0.26301807 0.99699998
-0.17499931 0.26507327 0.99468172
-0.16941381 0.26473856 0.99100006
-0.12080762 0.26049143 0.991
-0.11420914 0.26478752 0.99189997
-0.10981333 0.26601332 0.99400002
-0.18040952 0.27915999 0.99699998
-0.17495163 0.27509135 0.99295008
-0.18040952 0.28105903 0.99699998
-0.17610951 0.28391349 0.99150008
-0.17554857 0.29163715 0.991
-0.17184001 0.20928 1.008
-0.16704001 0.20832001 1.008
-0.1727026 0.21560217 1.0074288
-0.16470645 0.21545164 1.0054646
-0.15540685 0.21620224 1.0062799
-0.14710169 0.21627632 1.0070627
-0.17336811 0.22508402 1.0057083
-0.16501428 0.22478539 1.0020455
-0.15503635 0.22453962 1.0012223
-0.14519094 0.22484103 1.0038967
-0.13660292 0.2275887 1.0063335
-0.12575999 0.22848 1.008
-0.18163398 0.23508984 1.0078464
-0.17446904 0.23506603 1.0043201
-0.16656612 0.23486331 1.0006667
-0.14393884 0.23358369 1.0001667
-0.13485786 0.23471749 1.0015862
-0.12616849 0.23543102 1.0046452
-0.11808 0.23999999 1.008
-0.18129675 0.24556419 1.0072
-0.17471631 0.24519637 1.0027144
-0.16914284 0.24419045 1
-0.13238095 0.24190477 1
-0.12417579 0.24481295 1.0018929
-0.11861372 0.24755354 1.0044
-0.18206094 0.25499693 1.0036925
-0.17710146 0.25439736 1.0012001
-0.12190476 0.25142857 1
-0.11588672 0.25539023 1.0037694
-0.10889714 0.25982475 1.003
-0.18354978 0.26510823 1
-0.17904761 0.26285714 1
-0.11254881 0.26205668 1.0015
-0.10889714 0.26173523 1.003
-0.18273377 0.27409932 1.000923
-0.17904761 0.2742857 1
-0.18285714 0.28 1
-0.17256488 0.18782201 1.0195714
-0.1659784 0.18679081 1.0191668
-0.18103857 0.19802429 1.0192499
-0.1749744 0.19439794 1.01616
-0.16491066 0.19512153 1.0146
-0.15555543 0.19621056 1.0164001
-0.18386343 0.20558448 1.0191431
-0.17477848 0.20483766 1.0123636
-0.16481519 0.2040925 1.0115768
-0.15492523 0.20550534 1.0122353
-0.14556825 0.20564358 1.015
-0.13988571 0.20982857 1.02
-0.18394428 0.21541999 1.0171876
-0.17792132 0.21424352 1.011923
-0.16176 0.21182857 1.011
-0.1544423 0.21182856 1.011
-0.1427018 0.2142325 1.0115625
-0.1355717 0.21622124 1.0161428
-0.12759143 0.2177114 1.0175
-0.18373896 0.22453925 1.0125788
-0.17909144 0.22530857 1.011
-0.14057715 0.22338288 1.011
-0.13409227 0.22335577 1.0121999
-0.12716214 0.22415753 1.0134375
-0.18486857 0.23782572 1.011
-0.12276429 0.23445573 1.011
-0.11939429 0.23782572 1.011
-0.18486857 0.24360287 1.011
-0.11725461 0.24563557 1.011
-0.11554286 0.25034288 1.011
-0.19030476 0.16872381 1.03
-0.17292789 0.16760273 1.0299999
-0.16806984 0.16806984 1.03
-0.19114557 0.1748898 1.0299999
-0.18565261 0.17660861 1.027524
-0.17480884 0.17509307 1.0260371
-0.16492623 0.17522596 1.0256367
-0.15761687 0.17693278 1.0288571
-0.19153094 0.18466428 1.0299999
-0.18486203 0.18560465 1.0257143
-0.17606947 0.18427551 1.0234737
-0.16350202 0.18341997 1.0236428
-0.15559967 0.18608581 1.0270418
-0.14845079 0.18768889 1.03
-0.19208001 0.19387271 1.0289999
-0.18554802 0.1950123 1.0248501
-0.15319499 0.19332227 1.0245624
-0.14496943 0.19517276 1.0269631
-0.13682373 0.19548 1.023923
-0.19209071 0.20428452 1.0251249
-0.18780477 0.20209999 1.0235
-0.14271377 0.2029891 1.0238181
-0.13688713 0.20508714 1.0229999
-0.19151674 0.21350776 1.0229999
-0.18901142 0.21434286 1.023
-0.13542572 0.21239428 1.0229999
-0.19096 0.22018857 1.023
-0.18901142 0.22018857 1.023
-0.18531144 0.14706096 1.0386664
-0.17670827 0.14802635 1.0385
-0.19403535 0.15520264 1.0388123
-0.1857354 0.1552324 1.038192
-0.17563318 0.15549949 1.0377775
-0.16505258 0.1571364 1.0389999
-0.15832381 0.15832381 1.039
-0.20171715 0.16710667 1.03825
-0.19522658 0.16530056 1.0361198
-0.18549564 0.16512276 1.034778
-0.17523454 0.16367744 1.0347728
-0.16448899 0.16427468 1.036
-0.15668415 0.16656427 1.0374117
-0.20230249 0.17424914 1.0372001
-0.19654165 0.17485286 1.0350626
-0.1832072 0.17271322 1.033
-0.17905334 0.17118286 1.033
-0.16134475 0.17118286 1.033
-0.1545129 0.17413889 1.0351819
-0.14662582 0.17562933 1.0370908
-0.20186286 0.18207239 1.039
-0.1973888 0.18505332 1.0356251
-0.15281841 0.18233269 1.033
-0.14481619 0.18454581 1.0349616
-0.13970095 0.18889143 1.033
-0.1965881 0.19461761 1.033375
-0.14363618 0.19085903 1.033
-0.13970095 0.19085905 1.033
-0.23954286 -0.0079847621 1.048
-0.22656758 0.027946666 1.048
-0.21758476 0.027946664 1.048
-0.22522238 0.036191799 1.0480002
-0.21711506 0.036048852 1.0480001
-0.22507048 0.045712762 1.0480001
-0.21570303 0.046066821 1.0477501
-0.20860189 0.04990476 1.048
-0.27288586 0.056669366 1.0470001
-0.2646732 0.055718694 1.0447601
-0.25776666 0.058719046 1.045
-0.22391343 0.055230945 1.04725
-0.21521533 0.055796415 1.0462002
-0.20893459 0.056558728 1.048
-0.27256665 0.064603999 1.0468
-0.26500601 0.065756328 1.0460801
-0.25546375 0.065987304 1.0471251
-0.2495238 0.067870475 1.048
-0.2248739 0.065580681 1.0478573
-0.21501985 0.065700114 1.04524
-0.20780428 0.066276185 1.0465001
-0.2714819 0.071862854 1.048
-0.2640529 0.075191155 1.0469413
-0.25527966 0.075786665 1.0470401
-0.24729875 0.076505646 1.0463847
-0.22494744 0.075865149 1.0458751
-0.214872 0.075602427 1.04452
-0.20707265 0.075976633 1.046
-0.26216635 0.082509205 1.048
-0.25326663 0.084339038 1.048
-0.24553141 0.085836194 1.0480002
-0.23555048 0.086501583 1.0480001
-0.22500265 0.085619956 1.0453601
-0.21472204 0.085491054 1.0438
-0.20812361 0.085641325 1.0456001
-0.19961904 0.088830471 1.048
-0.25285077 0.097147934 1.048
-0.24544798 0.095784217 1.0476402
-0.23520073 0.095671311 1.0464401
-0.22477137 0.095476791 1.0442801
-0.21452549 0.095345132 1.0428399
-0.20595527 0.096631579 1.046579
-0.19780432 0.09708745 1.0480001
-0.25271767 0.10340266 1.048
-0.24530721 0.10560747 1.0477501
-0.23503962 0.10556906 1.0457201
-0.22474484 0.10541068 1.04416
-0.2144784 0.10525362 1.0425999
-0.20532122 0.10565181 1.0465602
-0.19695745 0.10613077 1.0480001
-0.24320255 0.11311746 1.048
-0.23404212 0.11489447 1.0472001
-0.22492495 0.11544922 1.045
-0.21467772 0.11528921 1.0435599
-0.20508577 0.11548784 1.0453601
-0.19551504 0.11541721 1.0478697
-0.1867547 0.11821883 1.048
-0.17965713 0.11977143 1.048
-0.2246075 0.12532592 1.0477002
-0.21497256 0.12540156 1.045
-0.20508964 0.12544319 1.0453601
-0.19516045 0.125623 1.0455002
-0.18549578 0.12565666 1.0471601
-0.17965713 0.1267581 1.048
-0.226368 0.1331459 1.0480001
-0.21423584 0.13480504 1.0471178
-0.20515959 0.13544543 1.0457201
-0.19509065 0.13536747 1.0451201
-0.18526171 0.13545914 1.04584
-0.17616129 0.13658185 1.0472106
-0.16618824 0.13926728 1.0469999
-0.15869714 0.13973333 1.048
-0.21223028 0.14547102 1.0462
-0.20518108 0.14541903 1.04584
-0.19548406 0.1449354 1.0443181
-0.18438445 0.1425081 1.04275
-0.17456314 0.14442255 1.0444
-0.16543511 0.14550589 1.0464401
-0.15659004 0.14671999 1.0480001
-0.21164092 0.1528776 1.04575
-0.2046091 0.15490413 1.0437499
-0.19807924 0.15322362 1.0420001
-0.17227735 0.15203276 1.0420001
-0.16457967 0.15331061 1.0444
-0.15582274 0.15536857 1.0475911
-0.14971428 0.15503746 1.048
-0.20297366 0.16158159 1.0430001
-0.1984762 0.16076572 1.0420001
-0.15375678 0.16371268 1.0452309
-0.14909682 0.16602729 1.0459999
-0.20244572 0.17862858 1.0420001
-0.14786476 0.17068954 1.0420001
-0.24182856 -0.01108381 1.058
-0.23900723 -0.011688381 1.058
-0.24045715 -0.0060114288 1.052
-0.23757142 -0.0050319037 1.0569999
-0.22318761 -0.0035266662 1.058
-0.21411902 -0.0040304759 1.058
-0.20785189 -0.0042795236 1.056875
-0.23466237 0.0040304759 1.0574999
-0.2259188 0.0049850624 1.058
-0.2168396 0.0028213332 1.058
-0.20756952 0 1.058
-0.19547808 0.006045714 1.058
-0.23407665 0.014059809 1.0548501
-0.22488746 0.014049527 1.0541601
-0.2171611 0.016328163 1.0528572
-0.19522619 0.014988334 1.0579998
-0.23213781 0.022958962 1.0522728
-0.22424914 0.023099855 1.052158
-0.21418013 0.023509931 1.0537144
-0.20644762 0.025083302 1.0563999
-0.23065715 0.032093331 1.053
-0.22342476 0.030057143 1.052
-0.21230397 0.034072109 1.0522144
-0.2052464 0.034209218 1.05644
-0.19682157 0.036946028 1.058
-0.23109522 0.042199999 1.0549999
-0.22776635 0.047423493 1.052
-0.21105823 0.043241363 1.0524286
-0.20513278 0.044242445 1.0558401
-0.19558506 0.044279341 1.0566957
-0.27652574 0.054770797 1.052
-0.22843429 0.05410286 1.052
-0.2104 0.052099049 1.052
-0.20454517 0.05449665 1.0546088
-0.19595189 0.054519806 1.0564287
-0.18943237 0.058441903 1.058
-0.27905902 0.062238097 1.054
-0.2274324 0.060114287 1.052
-0.20322847 0.063910984 1.052
-0.19474234 0.064245559 1.0540401
-0.18772715 0.064642645 1.0579998
-0.20263526 0.074266188 1.052
-0.19458851 0.074225299 1.0532001
-0.18491732 0.074365407 1.05524
-0.17851491 0.076169841 1.057
-0.26173332 0.086575232 1.057
-0.25705427 0.085886471 1.0535001
-0.23444574 0.082156196 1.052
-0.20332773 0.084395751 1.052
-0.19452292 0.08422903 1.0528401
-0.18537885 0.083744586 1.055143
-0.17884761 0.080380946 1.0549999
-0.26198095 0.092700951 1.058
-0.2569162 0.093330003 1.05375
-0.20438859 0.092175238 1.052
-0.19398867 0.093850039 1.0524091
-0.18658666 0.096131422 1.0574545
-0.25248 0.10720381 1.052
-0.19186479 0.10403111 1.052
-0.18491665 0.10451625 1.0552402
-0.17818011 0.10565439 1.0576667
-0.2413546 0.11599936 1.053
-0.23644954 0.11622096 1.052
-0.19076267 0.1126141 1.052
-0.1839458 0.11403037 1.0528182
-0.17705181 0.1148736 1.0554286
-0.24214759 0.12057142 1.0549999
-0.23504929 0.12454987 1.0546843
-0.19704127 0.12089651 1.052
-0.18034287 0.12223238 1.052
-0.1754038 0.12483324 1.0536501
-0.16491364 0.12528062 1.058
-0.1592038 0.12393713 1.058
-0.23177397 0.13091557 1.052
-0.22345567 0.13590075 1.0526667
-0.21841525 0.13625906 1.052
-0.17361264 0.1325011 1.0528572
-0.16577727 0.13573463 1.05575
-0.15819618 0.13905142 1.058
-0.22142096 0.14026667 1.052
-0.21707939 0.14260444 1.052
-0.15529525 0.14227048 1.052
-0.15128762 0.15729904 1.052
-0.20953141 -0.031531427 1.068
-0.21082285 -0.023315713 1.06425
-0.2078362 -0.023222221 1.065111
-0.2400457 -0.015257142 1.068
-0.23431341 -0.012475459 1.064
-0.2281177 -0.011753904 1.0635999
-0.21192762 -0.014197141 1.0646999
-0.20542821 -0.01293369 1.0651875
-0.19867556 -0.012168254 1.0643333
-0.23240952 -0.0050523807 1.061
-0.225673 -0.0050523807 1.061
-0.21422094 -0.0050523807 1.061
-0.20324914 -0.0052643809 1.0628
-0.19737969 -0.00437873 1.061
-0.17189713 -0.0030514284 1.068
-0.24049333 0.0030314284 1.061
-0.23544094 0.0032335236 1.061
-0.22345959 0.0017322449 1.061
-0.21497881 0.0030314284 1.061
-0.20390199 0.0043933741 1.0612612
-0.19549538 0.0038864466 1.0614614
-0.18909191 0.0070790481 1.0617499
-0.17338201 0.0036105821 1.0659999
-0.1684663 0.0040640002 1.0656
-0.22028381 0.011115238 1.061
-0.21826285 0.011115238 1.061
-0.20414393 0.013955827 1.0611429
-0.19364049 0.011880952 1.0617499
-0.18789363 0.015592673 1.0642308
-0.17698285 0.018308571 1.068
-0.2029036 0.023308316 1.061
-0.19429195 0.024434606 1.0616252
-0.18505351 0.024504287 1.0647084
-0.17442553 0.025350476 1.0648
-0.16767143 0.025401903 1.0669999
-0.20007429 0.031324759 1.061
-0.19411248 0.032856904 1.0615624
-0.18494506 0.034644343 1.0632498
-0.17441003 0.034316517 1.0625652
-0.1680259 0.033885527 1.0653999
-0.19199046 0.044460952 1.061
-0.18567027 0.044734176 1.062111
-0.17543866 0.044093732 1.0622503
-0.16814324 0.043248381 1.061
-0.19199046 0.053555239 1.061
-0.18510142 0.054549456 1.0620714
-0.17665538 0.05332572 1.0641539
-0.18316849 0.064529076 1.0612308
-0.17851174 0.065022856 1.064
-0.17712703 0.073567048 1.064
-0.18239206 0.088331111 1.0619999
-0.1756019 0.085778348 1.0652727
-0.16884571 0.089508571 1.068
-0.18438131 0.093898334 1.0615625
-0.17496537 0.095337212 1.0641428
-0.16520666 0.096709512 1.0675
-0.15867428 0.097645707 1.068
-0.17341724 0.10496172 1.0617499
-0.16538633 0.10490546 1.0665909
-0.15765715 0.10374856 1.068
-0.17231314 0.11474147 1.0617999
-0.16684952 0.11569764 1.0656667
-0.17258933 0.12368228 1.061
-0.1657721 0.12493421 1.0613501
-0.15926285 0.12481333 1.0638
-0.16419703 0.1336506 1.0613333
-0.15878911 0.13482639 1.061
-0.20603266 -0.031562444 1.074
-0.20437744 -0.025432082 1.0746841
-0.18104571 -0.020457143 1.074
-0.17797714 -0.020457143 1.074
-0.21623999 -0.0153 1.071
-0.20513332 -0.016546667 1.071
-0.18237834 -0.014582143 1.0743126
-0.17600776 -0.014166532 1.0735716
-0.18243662 -0.0048788269 1.0743078
-0.17538665 -0.005791428 1.07275
-0.18457228 0.0046664542 1.0753332
-0.1785 0.0047599999 1.071
-0.15416381 0.0066137561 1.0775555
-0.14783998 0.0061600003 1.0779999
-0.18388471 0.013233278 1.0740588
-0.17504208 0.014378442 1.0714089
-0.16649827 0.015337524 1.0739
-0.15458666 0.011146666 1.0779999
-0.14783999 0.011293333 1.0779999
-0.18257999 0.020399999 1.071
-0.17544 0.020399999 1.071
-0.16549174 0.024184443 1.0726668
-0.15358932 0.027925331 1.0779999
-0.14989333 0.027719997 1.0779999
-0.16461626 0.035287764 1.0751539
-0.1535437 0.034222223 1.0779999
-0.14989333 0.034906663 1.0779999
-0.17117333 0.048176665 1.07625
-0.16676286 0.044515423 1.0769
-0.15810665 0.041066665 1.0779999
-0.17365494 0.05608191 1.0735
-0.165803 0.055608418 1.076333
-0.15797877 0.05792544 1.0751427
-0.17402153 0.065214455 1.0718822
-0.16570286 0.065462865 1.0739999
-0.15803143 0.06495142 1.0740001
-0.17328858 0.075786531 1.0712143
-0.16568479 0.075682506 1.0738798
-0.15865652 0.075691432 1.074
-0.17299201 0.082823992 1.071
-0.16559917 0.085037537 1.0727141
-0.15868899 0.084458768 1.074
-0.16416429 0.092882849 1.07175
-0.15941714 0.09196952 1.073
-0.16217999 0.10811999 1.071
-0.15809999 0.10811999 1.071
-0.16249715 0.11446343 1.0731
-0.15865652 0.11410541 1.074
-0.16263428 0.12069714 1.074
-0.15956572 0.12069714 1.074
-0.16100191 0.016515555 1.0836667
-0.15479071 0.016227381 1.08175
-0.1478738 0.016489524 1.0819999
-0.16180596 0.024775239 1.0838749
-0.15522403 0.023480738 1.0825554
-0.14736898 0.023237824 1.081
-0.16189261 0.035775952 1.081
-0.1566748 0.035565369 1.0810001
-0.16311719 0.045584761 1.0812668
-0.15479724 0.045260519 1.0822726
-0.16163523 0.051476188 1.081
-0.15695025 0.053694606 1.0842223
